ncols 101
nrows 101
xllcorner 285410
yllcorner 6307904
cellsize 100
NODATA_value 0
577.0 576.0 576.0 574.0 572.0 570.0 568.0 569.0 569.0 568.0 568.0 569.0 570.0 570.0 568.0 570.0 570.0 573.0 575.0 577.0 578.0 579.0 573.0 572.0 571.0 571.0 574.0 577.0 577.0 578.0 578.0 579.0 581.0 584.0 584.0 585.0 586.0 585.0 583.0 583.0 580.0 578.0 577.0 575.0 576.0 575.0 576.0 578.0 581.0 581.0 583.0 585.0 585.0 586.0 586.0 587.0 586.0 583.0 581.0 581.0 581.0 582.0 585.0 588.0 590.0 593.0 595.0 596.0 597.0 595.0 595.0 596.0 597.0 598.0 600.0 601.0 601.0 601.0 600.0 597.0 596.0 596.0 596.0 597.0 596.0 597.0 599.0 598.0 599.0 601.0 602.0 603.0 608.0 608.0 609.0 611.0 611.0 612.0 614.0 615.0 617.0
575.0 576.0 574.0 572.0 571.0 567.0 566.0 566.0 564.0 565.0 568.0 568.0 566.0 567.0 566.0 567.0 569.0 573.0 574.0 576.0 578.0 578.0 573.0 570.0 570.0 573.0 572.0 573.0 573.0 574.0 574.0 577.0 578.0 579.0 580.0 582.0 582.0 583.0 581.0 581.0 580.0 578.0 577.0 573.0 571.0 569.0 572.0 578.0 579.0 578.0 581.0 583.0 583.0 583.0 584.0 583.0 584.0 581.0 578.0 579.0 580.0 579.0 583.0 584.0 587.0 589.0 592.0 591.0 595.0 593.0 593.0 592.0 594.0 596.0 596.0 600.0 600.0 598.0 596.0 593.0 593.0 593.0 594.0 594.0 595.0 594.0 597.0 598.0 601.0 605.0 605.0 605.0 610.0 608.0 610.0 612.0 611.0 615.0 615.0 616.0 618.0
574.0 575.0 572.0 571.0 571.0 569.0 567.0 565.0 564.0 565.0 566.0 565.0 565.0 565.0 564.0 566.0 569.0 571.0 573.0 578.0 577.0 577.0 575.0 571.0 570.0 571.0 568.0 567.0 569.0 571.0 571.0 572.0 575.0 575.0 577.0 580.0 580.0 581.0 581.0 581.0 579.0 574.0 574.0 574.0 569.0 567.0 571.0 576.0 578.0 578.0 578.0 579.0 578.0 580.0 581.0 581.0 582.0 579.0 577.0 576.0 577.0 578.0 581.0 580.0 586.0 586.0 587.0 588.0 591.0 589.0 591.0 591.0 591.0 592.0 594.0 597.0 597.0 595.0 594.0 592.0 590.0 590.0 590.0 592.0 594.0 598.0 599.0 602.0 604.0 606.0 607.0 609.0 609.0 610.0 613.0 614.0 613.0 615.0 616.0 621.0 622.0
573.0 573.0 573.0 572.0 570.0 569.0 567.0 565.0 564.0 562.0 563.0 562.0 562.0 563.0 563.0 565.0 568.0 569.0 569.0 573.0 574.0 575.0 575.0 571.0 569.0 567.0 567.0 563.0 566.0 568.0 568.0 569.0 572.0 574.0 576.0 578.0 580.0 581.0 579.0 576.0 574.0 575.0 574.0 571.0 566.0 568.0 571.0 574.0 575.0 575.0 576.0 578.0 578.0 579.0 581.0 580.0 580.0 579.0 576.0 576.0 576.0 579.0 579.0 579.0 580.0 583.0 584.0 586.0 587.0 588.0 587.0 589.0 590.0 591.0 591.0 595.0 593.0 593.0 592.0 589.0 587.0 587.0 588.0 591.0 594.0 599.0 599.0 600.0 601.0 604.0 605.0 607.0 607.0 609.0 609.0 610.0 611.0 615.0 617.0 622.0 623.0
572.0 573.0 572.0 570.0 570.0 568.0 569.0 566.0 565.0 559.0 561.0 561.0 560.0 559.0 561.0 562.0 565.0 565.0 566.0 571.0 571.0 572.0 571.0 573.0 572.0 571.0 566.0 564.0 564.0 565.0 568.0 569.0 571.0 575.0 573.0 576.0 576.0 576.0 575.0 576.0 573.0 571.0 571.0 570.0 564.0 565.0 567.0 572.0 572.0 573.0 573.0 576.0 576.0 578.0 579.0 581.0 581.0 579.0 576.0 575.0 575.0 577.0 577.0 576.0 580.0 581.0 582.0 583.0 585.0 586.0 584.0 586.0 586.0 588.0 590.0 591.0 590.0 586.0 585.0 585.0 587.0 587.0 586.0 589.0 590.0 596.0 597.0 597.0 599.0 602.0 603.0 604.0 604.0 606.0 606.0 605.0 609.0 611.0 614.0 619.0 622.0
572.0 572.0 570.0 571.0 570.0 569.0 568.0 567.0 565.0 560.0 560.0 558.0 557.0 559.0 560.0 561.0 562.0 563.0 564.0 566.0 567.0 569.0 569.0 572.0 572.0 572.0 567.0 564.0 563.0 563.0 567.0 565.0 567.0 569.0 569.0 572.0 573.0 573.0 574.0 573.0 569.0 569.0 569.0 568.0 563.0 563.0 565.0 569.0 569.0 570.0 571.0 575.0 575.0 576.0 577.0 580.0 577.0 576.0 575.0 573.0 574.0 573.0 574.0 574.0 575.0 580.0 580.0 580.0 583.0 584.0 584.0 585.0 586.0 586.0 586.0 585.0 585.0 584.0 583.0 584.0 584.0 584.0 586.0 586.0 588.0 590.0 593.0 595.0 597.0 597.0 600.0 601.0 601.0 602.0 603.0 604.0 607.0 608.0 611.0 616.0 616.0
574.0 574.0 572.0 571.0 570.0 567.0 564.0 564.0 562.0 559.0 560.0 558.0 557.0 560.0 560.0 559.0 560.0 562.0 561.0 562.0 564.0 567.0 566.0 569.0 571.0 570.0 569.0 563.0 559.0 558.0 563.0 564.0 564.0 568.0 568.0 570.0 569.0 571.0 570.0 568.0 567.0 567.0 567.0 565.0 562.0 561.0 563.0 565.0 568.0 569.0 569.0 572.0 574.0 574.0 578.0 576.0 575.0 574.0 571.0 571.0 571.0 572.0 573.0 573.0 573.0 578.0 579.0 579.0 581.0 582.0 583.0 582.0 581.0 582.0 585.0 585.0 584.0 583.0 582.0 583.0 584.0 584.0 585.0 586.0 587.0 588.0 589.0 591.0 593.0 593.0 596.0 598.0 598.0 599.0 600.0 602.0 606.0 609.0 612.0 613.0 615.0
572.0 574.0 572.0 570.0 567.0 564.0 562.0 561.0 560.0 557.0 556.0 556.0 556.0 557.0 559.0 559.0 556.0 559.0 560.0 561.0 564.0 564.0 564.0 565.0 565.0 563.0 562.0 561.0 558.0 557.0 559.0 561.0 563.0 566.0 567.0 567.0 566.0 567.0 568.0 567.0 565.0 564.0 565.0 564.0 563.0 560.0 563.0 563.0 566.0 567.0 569.0 570.0 571.0 572.0 574.0 572.0 573.0 574.0 573.0 570.0 569.0 569.0 569.0 571.0 573.0 576.0 578.0 579.0 580.0 579.0 580.0 579.0 578.0 580.0 582.0 584.0 583.0 581.0 580.0 581.0 582.0 582.0 584.0 584.0 584.0 585.0 587.0 590.0 591.0 591.0 592.0 594.0 595.0 597.0 599.0 600.0 605.0 607.0 611.0 611.0 613.0
566.0 570.0 570.0 569.0 567.0 565.0 557.0 557.0 557.0 557.0 556.0 556.0 554.0 554.0 556.0 557.0 556.0 555.0 557.0 559.0 561.0 560.0 560.0 562.0 563.0 563.0 560.0 559.0 558.0 556.0 558.0 559.0 561.0 563.0 565.0 565.0 564.0 564.0 565.0 565.0 565.0 562.0 564.0 562.0 561.0 560.0 562.0 562.0 565.0 565.0 567.0 569.0 570.0 570.0 570.0 570.0 571.0 571.0 571.0 569.0 568.0 569.0 568.0 568.0 571.0 574.0 576.0 578.0 578.0 576.0 578.0 577.0 578.0 579.0 582.0 579.0 580.0 580.0 581.0 581.0 580.0 580.0 582.0 583.0 583.0 585.0 588.0 588.0 588.0 590.0 592.0 593.0 593.0 596.0 597.0 599.0 603.0 604.0 608.0 609.0 610.0
562.0 563.0 567.0 565.0 564.0 561.0 555.0 556.0 555.0 555.0 556.0 555.0 553.0 551.0 552.0 552.0 554.0 554.0 553.0 553.0 557.0 560.0 558.0 561.0 560.0 560.0 559.0 555.0 556.0 554.0 556.0 557.0 558.0 560.0 562.0 564.0 562.0 562.0 561.0 562.0 562.0 562.0 561.0 560.0 559.0 557.0 560.0 562.0 564.0 563.0 564.0 567.0 568.0 567.0 566.0 569.0 569.0 568.0 568.0 566.0 566.0 565.0 566.0 568.0 570.0 575.0 577.0 578.0 577.0 576.0 577.0 575.0 577.0 576.0 580.0 577.0 579.0 580.0 580.0 577.0 580.0 579.0 579.0 582.0 584.0 584.0 583.0 585.0 586.0 590.0 591.0 591.0 593.0 594.0 595.0 599.0 603.0 604.0 606.0 606.0 607.0
561.0 560.0 562.0 561.0 560.0 559.0 557.0 555.0 555.0 555.0 553.0 554.0 554.0 552.0 552.0 550.0 549.0 552.0 553.0 552.0 555.0 557.0 557.0 560.0 561.0 559.0 558.0 553.0 554.0 554.0 557.0 556.0 556.0 559.0 559.0 561.0 560.0 558.0 559.0 559.0 559.0 561.0 560.0 559.0 556.0 556.0 558.0 559.0 562.0 562.0 563.0 564.0 566.0 565.0 564.0 564.0 564.0 564.0 562.0 563.0 564.0 564.0 565.0 566.0 566.0 570.0 572.0 572.0 574.0 574.0 572.0 572.0 576.0 575.0 575.0 575.0 578.0 577.0 578.0 575.0 576.0 577.0 578.0 579.0 580.0 580.0 583.0 583.0 585.0 586.0 589.0 591.0 592.0 593.0 594.0 597.0 602.0 604.0 604.0 604.0 602.0
563.0 561.0 560.0 559.0 559.0 559.0 559.0 559.0 558.0 562.0 564.0 562.0 560.0 558.0 555.0 554.0 551.0 549.0 548.0 550.0 552.0 555.0 558.0 560.0 559.0 557.0 557.0 553.0 552.0 552.0 554.0 556.0 557.0 561.0 559.0 560.0 560.0 557.0 556.0 555.0 557.0 559.0 556.0 556.0 555.0 556.0 558.0 559.0 561.0 560.0 561.0 560.0 563.0 562.0 562.0 561.0 561.0 561.0 563.0 563.0 563.0 563.0 565.0 564.0 566.0 568.0 569.0 571.0 572.0 572.0 571.0 572.0 575.0 575.0 573.0 573.0 574.0 573.0 573.0 575.0 575.0 574.0 576.0 579.0 580.0 580.0 582.0 584.0 584.0 587.0 588.0 589.0 590.0 593.0 595.0 596.0 596.0 599.0 601.0 601.0 600.0
564.0 562.0 562.0 561.0 559.0 561.0 562.0 567.0 568.0 568.0 567.0 566.0 563.0 561.0 559.0 559.0 556.0 553.0 551.0 548.0 549.0 552.0 554.0 557.0 557.0 556.0 553.0 552.0 549.0 550.0 552.0 556.0 558.0 562.0 559.0 559.0 557.0 555.0 556.0 555.0 557.0 556.0 553.0 553.0 554.0 556.0 557.0 558.0 559.0 559.0 559.0 561.0 559.0 559.0 557.0 560.0 560.0 562.0 561.0 562.0 562.0 561.0 563.0 564.0 565.0 567.0 567.0 569.0 570.0 570.0 571.0 573.0 573.0 574.0 573.0 572.0 573.0 572.0 571.0 574.0 574.0 573.0 576.0 578.0 579.0 580.0 582.0 583.0 585.0 587.0 588.0 589.0 589.0 592.0 592.0 595.0 595.0 599.0 600.0 598.0 599.0
565.0 563.0 562.0 563.0 564.0 568.0 570.0 569.0 571.0 569.0 568.0 568.0 566.0 562.0 562.0 561.0 559.0 558.0 556.0 551.0 546.0 548.0 551.0 555.0 554.0 551.0 552.0 549.0 548.0 551.0 554.0 558.0 558.0 562.0 560.0 558.0 555.0 554.0 554.0 552.0 554.0 551.0 551.0 551.0 552.0 556.0 556.0 555.0 557.0 558.0 559.0 561.0 560.0 558.0 556.0 559.0 558.0 558.0 559.0 560.0 560.0 561.0 560.0 562.0 562.0 565.0 567.0 568.0 568.0 568.0 570.0 572.0 571.0 571.0 571.0 571.0 570.0 572.0 573.0 573.0 573.0 572.0 575.0 578.0 579.0 580.0 582.0 583.0 586.0 583.0 585.0 584.0 587.0 589.0 590.0 592.0 593.0 596.0 596.0 596.0 596.0
570.0 570.0 568.0 567.0 569.0 571.0 573.0 574.0 574.0 573.0 569.0 566.0 568.0 566.0 564.0 562.0 560.0 559.0 556.0 553.0 546.0 547.0 546.0 549.0 551.0 550.0 549.0 546.0 547.0 551.0 554.0 558.0 559.0 562.0 562.0 559.0 557.0 556.0 552.0 550.0 550.0 551.0 550.0 551.0 550.0 553.0 554.0 554.0 554.0 558.0 558.0 559.0 557.0 557.0 557.0 556.0 557.0 558.0 560.0 558.0 558.0 559.0 560.0 563.0 563.0 564.0 566.0 567.0 567.0 569.0 569.0 570.0 570.0 571.0 570.0 571.0 571.0 572.0 573.0 572.0 570.0 571.0 573.0 577.0 576.0 579.0 581.0 581.0 582.0 581.0 583.0 583.0 584.0 586.0 588.0 589.0 590.0 591.0 592.0 593.0 594.0
574.0 572.0 569.0 569.0 568.0 570.0 571.0 573.0 573.0 574.0 571.0 570.0 568.0 566.0 564.0 564.0 560.0 555.0 554.0 552.0 549.0 549.0 547.0 546.0 544.0 546.0 545.0 544.0 547.0 550.0 552.0 554.0 557.0 558.0 561.0 560.0 560.0 557.0 553.0 551.0 548.0 547.0 550.0 551.0 551.0 555.0 555.0 556.0 558.0 557.0 556.0 557.0 555.0 555.0 554.0 557.0 555.0 556.0 556.0 555.0 556.0 557.0 559.0 562.0 562.0 563.0 565.0 566.0 566.0 568.0 568.0 568.0 568.0 569.0 568.0 568.0 570.0 571.0 570.0 569.0 568.0 571.0 573.0 575.0 576.0 577.0 578.0 580.0 580.0 580.0 580.0 581.0 583.0 584.0 586.0 587.0 588.0 590.0 590.0 591.0 593.0
575.0 574.0 572.0 573.0 571.0 572.0 571.0 572.0 570.0 573.0 567.0 567.0 567.0 565.0 562.0 563.0 561.0 554.0 553.0 550.0 548.0 549.0 550.0 550.0 545.0 544.0 543.0 546.0 548.0 547.0 547.0 550.0 553.0 554.0 556.0 553.0 555.0 553.0 550.0 549.0 547.0 545.0 547.0 550.0 550.0 552.0 554.0 554.0 556.0 554.0 553.0 554.0 554.0 553.0 553.0 557.0 556.0 556.0 554.0 554.0 554.0 556.0 560.0 561.0 561.0 563.0 564.0 565.0 565.0 564.0 566.0 567.0 567.0 566.0 566.0 568.0 569.0 569.0 568.0 567.0 570.0 571.0 572.0 575.0 576.0 576.0 576.0 579.0 579.0 577.0 579.0 580.0 579.0 581.0 585.0 586.0 589.0 588.0 590.0 591.0 591.0
579.0 579.0 578.0 575.0 574.0 573.0 574.0 573.0 573.0 571.0 567.0 567.0 565.0 563.0 559.0 558.0 558.0 552.0 550.0 549.0 547.0 550.0 552.0 551.0 547.0 543.0 542.0 542.0 544.0 543.0 542.0 545.0 543.0 542.0 548.0 550.0 551.0 551.0 547.0 548.0 545.0 543.0 547.0 550.0 552.0 552.0 556.0 555.0 556.0 553.0 552.0 551.0 550.0 551.0 551.0 556.0 554.0 554.0 552.0 551.0 552.0 555.0 556.0 559.0 559.0 561.0 564.0 563.0 563.0 564.0 564.0 566.0 564.0 566.0 567.0 566.0 565.0 566.0 567.0 567.0 570.0 570.0 572.0 573.0 576.0 576.0 575.0 575.0 577.0 576.0 577.0 578.0 579.0 580.0 585.0 584.0 586.0 587.0 587.0 590.0 588.0
585.0 583.0 583.0 581.0 578.0 576.0 575.0 575.0 572.0 571.0 567.0 565.0 563.0 562.0 558.0 555.0 557.0 551.0 550.0 548.0 547.0 551.0 553.0 552.0 547.0 544.0 540.0 541.0 538.0 538.0 538.0 538.0 539.0 541.0 544.0 545.0 547.0 547.0 542.0 541.0 541.0 542.0 548.0 549.0 551.0 554.0 557.0 558.0 559.0 554.0 553.0 552.0 548.0 549.0 549.0 551.0 553.0 551.0 551.0 549.0 553.0 554.0 558.0 559.0 559.0 561.0 561.0 560.0 561.0 562.0 562.0 562.0 563.0 565.0 565.0 564.0 565.0 566.0 567.0 567.0 569.0 571.0 572.0 573.0 573.0 573.0 575.0 573.0 575.0 574.0 578.0 579.0 579.0 580.0 582.0 582.0 584.0 587.0 586.0 587.0 585.0
589.0 587.0 586.0 582.0 580.0 578.0 576.0 574.0 574.0 571.0 566.0 564.0 564.0 562.0 558.0 555.0 553.0 551.0 551.0 549.0 547.0 551.0 552.0 550.0 544.0 541.0 539.0 539.0 540.0 539.0 538.0 538.0 537.0 538.0 540.0 542.0 542.0 544.0 540.0 538.0 538.0 542.0 547.0 548.0 550.0 554.0 555.0 557.0 557.0 554.0 552.0 551.0 547.0 546.0 547.0 548.0 551.0 549.0 548.0 549.0 551.0 551.0 553.0 556.0 558.0 558.0 560.0 559.0 558.0 557.0 558.0 562.0 562.0 564.0 563.0 562.0 563.0 566.0 565.0 566.0 569.0 569.0 570.0 571.0 570.0 570.0 571.0 574.0 575.0 575.0 578.0 578.0 578.0 578.0 580.0 581.0 584.0 585.0 585.0 586.0 586.0
592.0 590.0 589.0 587.0 581.0 578.0 576.0 572.0 570.0 570.0 568.0 564.0 563.0 561.0 557.0 554.0 552.0 550.0 550.0 550.0 547.0 551.0 549.0 547.0 542.0 540.0 540.0 541.0 542.0 542.0 541.0 537.0 537.0 534.0 537.0 537.0 537.0 539.0 539.0 536.0 538.0 541.0 546.0 547.0 548.0 550.0 554.0 555.0 555.0 555.0 552.0 548.0 544.0 544.0 546.0 546.0 546.0 547.0 548.0 548.0 549.0 549.0 550.0 553.0 550.0 552.0 556.0 555.0 555.0 557.0 559.0 561.0 562.0 564.0 562.0 561.0 562.0 563.0 562.0 565.0 567.0 568.0 568.0 569.0 570.0 569.0 569.0 573.0 576.0 576.0 576.0 577.0 576.0 581.0 582.0 583.0 585.0 585.0 585.0 585.0 586.0
594.0 592.0 589.0 587.0 582.0 580.0 578.0 571.0 569.0 568.0 566.0 563.0 561.0 560.0 558.0 555.0 552.0 552.0 551.0 546.0 546.0 545.0 543.0 544.0 543.0 542.0 541.0 544.0 544.0 544.0 545.0 541.0 539.0 536.0 535.0 534.0 534.0 534.0 536.0 536.0 537.0 539.0 541.0 542.0 544.0 549.0 551.0 551.0 551.0 551.0 551.0 548.0 542.0 541.0 542.0 542.0 544.0 544.0 546.0 547.0 548.0 549.0 550.0 551.0 550.0 549.0 553.0 553.0 555.0 557.0 559.0 561.0 561.0 562.0 562.0 562.0 561.0 564.0 562.0 563.0 566.0 564.0 566.0 567.0 569.0 567.0 569.0 572.0 572.0 574.0 575.0 576.0 577.0 580.0 582.0 582.0 582.0 585.0 585.0 585.0 584.0
598.0 594.0 591.0 588.0 581.0 579.0 578.0 573.0 572.0 569.0 567.0 564.0 561.0 560.0 558.0 556.0 555.0 552.0 550.0 547.0 547.0 545.0 545.0 545.0 544.0 544.0 544.0 547.0 547.0 547.0 547.0 545.0 539.0 537.0 534.0 533.0 533.0 531.0 533.0 532.0 532.0 534.0 537.0 539.0 542.0 548.0 551.0 549.0 548.0 547.0 546.0 544.0 541.0 542.0 544.0 546.0 549.0 553.0 553.0 556.0 555.0 554.0 553.0 553.0 553.0 551.0 551.0 552.0 553.0 553.0 557.0 556.0 559.0 559.0 560.0 561.0 561.0 562.0 562.0 564.0 561.0 564.0 565.0 565.0 569.0 567.0 568.0 571.0 571.0 571.0 573.0 577.0 577.0 580.0 582.0 582.0 583.0 585.0 584.0 584.0 582.0
599.0 596.0 592.0 589.0 583.0 582.0 579.0 576.0 574.0 572.0 569.0 567.0 566.0 564.0 559.0 556.0 555.0 554.0 550.0 549.0 548.0 546.0 546.0 546.0 545.0 549.0 548.0 546.0 546.0 547.0 546.0 548.0 542.0 541.0 537.0 534.0 533.0 530.0 532.0 531.0 531.0 533.0 537.0 539.0 542.0 545.0 551.0 550.0 548.0 544.0 541.0 541.0 542.0 544.0 546.0 549.0 551.0 554.0 555.0 557.0 558.0 557.0 557.0 557.0 555.0 556.0 553.0 554.0 554.0 553.0 555.0 555.0 558.0 558.0 559.0 559.0 560.0 560.0 563.0 565.0 563.0 565.0 564.0 566.0 568.0 569.0 570.0 571.0 571.0 571.0 572.0 576.0 577.0 580.0 581.0 582.0 582.0 582.0 583.0 581.0 580.0
602.0 597.0 594.0 590.0 585.0 582.0 581.0 579.0 580.0 578.0 576.0 570.0 569.0 567.0 560.0 559.0 556.0 554.0 552.0 550.0 548.0 548.0 547.0 546.0 546.0 546.0 547.0 547.0 546.0 549.0 547.0 546.0 543.0 543.0 540.0 537.0 534.0 533.0 531.0 529.0 530.0 532.0 533.0 535.0 540.0 545.0 549.0 550.0 547.0 544.0 539.0 540.0 543.0 546.0 547.0 548.0 550.0 551.0 553.0 554.0 557.0 559.0 559.0 560.0 560.0 559.0 558.0 556.0 556.0 556.0 555.0 555.0 555.0 557.0 558.0 559.0 560.0 559.0 562.0 564.0 565.0 567.0 567.0 567.0 569.0 570.0 572.0 571.0 572.0 574.0 573.0 577.0 579.0 581.0 581.0 581.0 582.0 582.0 581.0 581.0 580.0
612.0 602.0 598.0 594.0 591.0 590.0 588.0 587.0 584.0 582.0 581.0 575.0 572.0 569.0 563.0 561.0 559.0 557.0 554.0 550.0 550.0 547.0 548.0 547.0 546.0 549.0 549.0 549.0 551.0 550.0 547.0 547.0 544.0 540.0 541.0 535.0 534.0 532.0 530.0 529.0 529.0 530.0 532.0 533.0 536.0 540.0 545.0 537.0 540.0 535.0 537.0 540.0 542.0 547.0 548.0 550.0 550.0 553.0 555.0 553.0 559.0 560.0 562.0 562.0 561.0 563.0 563.0 561.0 560.0 559.0 558.0 558.0 557.0 557.0 560.0 559.0 561.0 562.0 564.0 564.0 566.0 569.0 571.0 569.0 571.0 571.0 571.0 571.0 573.0 575.0 577.0 574.0 580.0 579.0 582.0 580.0 581.0 582.0 582.0 580.0 580.0
614.0 612.0 609.0 605.0 597.0 594.0 593.0 592.0 589.0 588.0 585.0 577.0 575.0 571.0 568.0 565.0 562.0 560.0 556.0 553.0 553.0 551.0 549.0 547.0 546.0 544.0 545.0 546.0 548.0 547.0 547.0 545.0 541.0 541.0 540.0 537.0 534.0 532.0 532.0 528.0 527.0 528.0 533.0 536.0 533.0 533.0 535.0 535.0 535.0 537.0 538.0 539.0 540.0 546.0 547.0 548.0 551.0 553.0 554.0 553.0 557.0 560.0 562.0 563.0 563.0 566.0 565.0 564.0 565.0 563.0 563.0 562.0 563.0 562.0 562.0 562.0 562.0 565.0 565.0 567.0 569.0 570.0 573.0 573.0 572.0 572.0 574.0 575.0 576.0 575.0 576.0 579.0 580.0 578.0 580.0 582.0 584.0 584.0 582.0 582.0 581.0
627.0 617.0 613.0 609.0 602.0 599.0 598.0 598.0 597.0 595.0 591.0 582.0 578.0 574.0 573.0 568.0 566.0 564.0 558.0 557.0 555.0 552.0 549.0 545.0 543.0 538.0 538.0 541.0 543.0 544.0 540.0 539.0 539.0 537.0 539.0 538.0 531.0 529.0 528.0 527.0 528.0 529.0 535.0 532.0 531.0 531.0 534.0 534.0 534.0 536.0 537.0 537.0 538.0 542.0 542.0 544.0 547.0 549.0 550.0 553.0 556.0 559.0 560.0 563.0 564.0 566.0 565.0 565.0 565.0 565.0 566.0 565.0 565.0 566.0 566.0 565.0 566.0 566.0 568.0 569.0 568.0 570.0 572.0 574.0 576.0 574.0 576.0 578.0 579.0 579.0 579.0 580.0 581.0 580.0 582.0 581.0 584.0 584.0 583.0 582.0 583.0
633.0 624.0 619.0 613.0 607.0 604.0 603.0 604.0 604.0 601.0 596.0 586.0 583.0 579.0 578.0 573.0 570.0 567.0 561.0 558.0 556.0 553.0 547.0 544.0 542.0 537.0 536.0 535.0 536.0 540.0 537.0 534.0 533.0 532.0 534.0 533.0 526.0 523.0 523.0 527.0 529.0 529.0 530.0 531.0 531.0 531.0 533.0 534.0 534.0 535.0 537.0 537.0 538.0 541.0 540.0 542.0 546.0 545.0 547.0 549.0 552.0 555.0 556.0 561.0 561.0 564.0 564.0 566.0 566.0 567.0 568.0 567.0 567.0 567.0 568.0 569.0 569.0 570.0 570.0 573.0 573.0 577.0 578.0 576.0 578.0 578.0 577.0 577.0 581.0 580.0 582.0 583.0 582.0 583.0 582.0 585.0 585.0 584.0 584.0 584.0 585.0
640.0 629.0 623.0 619.0 615.0 614.0 612.0 614.0 610.0 610.0 606.0 593.0 588.0 585.0 584.0 577.0 573.0 570.0 562.0 560.0 555.0 550.0 546.0 545.0 543.0 537.0 534.0 533.0 533.0 535.0 532.0 527.0 527.0 524.0 524.0 526.0 523.0 523.0 523.0 527.0 527.0 528.0 528.0 530.0 530.0 531.0 536.0 535.0 534.0 535.0 538.0 538.0 538.0 542.0 542.0 543.0 543.0 545.0 547.0 547.0 550.0 552.0 552.0 554.0 556.0 560.0 562.0 563.0 564.0 566.0 568.0 568.0 568.0 568.0 570.0 571.0 571.0 574.0 575.0 577.0 578.0 580.0 580.0 581.0 581.0 580.0 580.0 580.0 583.0 584.0 585.0 587.0 587.0 586.0 585.0 587.0 586.0 587.0 587.0 585.0 584.0
648.0 633.0 627.0 625.0 624.0 622.0 624.0 621.0 620.0 621.0 618.0 607.0 600.0 595.0 590.0 581.0 578.0 575.0 565.0 563.0 560.0 557.0 548.0 546.0 544.0 538.0 535.0 530.0 529.0 526.0 526.0 522.0 519.0 518.0 520.0 523.0 522.0 526.0 524.0 526.0 526.0 527.0 530.0 531.0 532.0 534.0 537.0 539.0 537.0 538.0 540.0 540.0 540.0 544.0 542.0 542.0 542.0 546.0 548.0 547.0 548.0 550.0 551.0 551.0 554.0 557.0 558.0 558.0 559.0 563.0 565.0 565.0 564.0 565.0 566.0 566.0 570.0 572.0 575.0 575.0 575.0 579.0 579.0 582.0 584.0 585.0 585.0 585.0 586.0 589.0 588.0 590.0 591.0 590.0 587.0 587.0 588.0 588.0 587.0 586.0 587.0
656.0 640.0 635.0 634.0 633.0 634.0 636.0 632.0 630.0 628.0 627.0 625.0 610.0 602.0 594.0 586.0 585.0 582.0 579.0 570.0 567.0 563.0 556.0 552.0 552.0 545.0 545.0 543.0 543.0 535.0 533.0 528.0 519.0 519.0 521.0 521.0 521.0 524.0 527.0 529.0 531.0 533.0 533.0 532.0 533.0 536.0 540.0 542.0 542.0 544.0 544.0 543.0 542.0 545.0 545.0 547.0 547.0 547.0 548.0 547.0 549.0 550.0 550.0 551.0 553.0 555.0 557.0 557.0 559.0 561.0 563.0 565.0 564.0 566.0 568.0 567.0 569.0 569.0 573.0 573.0 573.0 578.0 578.0 581.0 583.0 586.0 586.0 588.0 591.0 592.0 591.0 592.0 596.0 594.0 592.0 592.0 592.0 592.0 589.0 588.0 589.0
670.0 652.0 644.0 646.0 644.0 649.0 647.0 644.0 641.0 640.0 638.0 633.0 615.0 608.0 601.0 596.0 593.0 591.0 586.0 577.0 573.0 569.0 583.0 584.0 578.0 565.0 554.0 555.0 556.0 545.0 540.0 541.0 534.0 518.0 522.0 521.0 521.0 524.0 528.0 534.0 538.0 536.0 537.0 537.0 538.0 538.0 541.0 543.0 546.0 547.0 547.0 548.0 548.0 550.0 551.0 552.0 551.0 553.0 552.0 551.0 552.0 552.0 550.0 552.0 554.0 557.0 559.0 560.0 560.0 563.0 565.0 564.0 566.0 568.0 569.0 570.0 569.0 571.0 574.0 572.0 573.0 577.0 577.0 580.0 583.0 585.0 585.0 588.0 591.0 593.0 593.0 596.0 597.0 598.0 598.0 594.0 596.0 594.0 594.0 590.0 587.0
688.0 672.0 667.0 669.0 662.0 665.0 663.0 658.0 649.0 651.0 651.0 646.0 621.0 617.0 613.0 608.0 604.0 600.0 594.0 587.0 579.0 577.0 590.0 599.0 586.0 571.0 562.0 560.0 555.0 545.0 540.0 536.0 531.0 517.0 521.0 528.0 528.0 529.0 532.0 536.0 540.0 539.0 542.0 543.0 542.0 541.0 541.0 546.0 547.0 550.0 552.0 552.0 550.0 553.0 554.0 551.0 553.0 555.0 556.0 556.0 555.0 554.0 557.0 558.0 560.0 560.0 560.0 564.0 564.0 565.0 566.0 566.0 567.0 570.0 571.0 569.0 571.0 575.0 576.0 575.0 576.0 578.0 577.0 580.0 581.0 584.0 585.0 589.0 591.0 593.0 594.0 598.0 600.0 602.0 603.0 599.0 598.0 598.0 597.0 591.0 590.0
714.0 700.0 698.0 690.0 690.0 685.0 682.0 678.0 664.0 667.0 666.0 658.0 640.0 635.0 628.0 618.0 624.0 618.0 612.0 596.0 583.0 575.0 575.0 578.0 570.0 558.0 553.0 551.0 543.0 535.0 531.0 528.0 523.0 518.0 521.0 529.0 534.0 536.0 537.0 540.0 546.0 546.0 549.0 549.0 547.0 545.0 545.0 552.0 552.0 554.0 555.0 553.0 549.0 549.0 550.0 549.0 552.0 553.0 548.0 551.0 555.0 560.0 562.0 563.0 562.0 563.0 565.0 567.0 567.0 567.0 569.0 570.0 572.0 571.0 572.0 573.0 572.0 575.0 577.0 577.0 579.0 582.0 580.0 580.0 582.0 585.0 586.0 586.0 589.0 592.0 595.0 597.0 600.0 601.0 604.0 602.0 601.0 601.0 600.0 596.0 595.0
749.0 741.0 722.0 723.0 723.0 714.0 715.0 711.0 700.0 684.0 686.0 676.0 681.0 665.0 654.0 648.0 643.0 636.0 629.0 609.0 595.0 585.0 568.0 564.0 560.0 555.0 544.0 539.0 535.0 529.0 527.0 524.0 521.0 516.0 520.0 527.0 535.0 539.0 542.0 545.0 549.0 550.0 552.0 548.0 546.0 549.0 553.0 558.0 562.0 561.0 555.0 551.0 550.0 548.0 546.0 541.0 542.0 546.0 549.0 552.0 555.0 562.0 565.0 566.0 566.0 567.0 567.0 569.0 572.0 570.0 572.0 573.0 576.0 576.0 575.0 576.0 577.0 576.0 577.0 578.0 581.0 583.0 585.0 587.0 588.0 589.0 590.0 589.0 589.0 591.0 593.0 593.0 597.0 599.0 601.0 602.0 601.0 601.0 597.0 596.0 596.0
785.0 774.0 753.0 755.0 762.0 749.0 754.0 747.0 733.0 749.0 745.0 738.0 703.0 691.0 683.0 679.0 672.0 662.0 653.0 625.0 612.0 600.0 578.0 575.0 569.0 563.0 550.0 544.0 539.0 537.0 534.0 530.0 526.0 515.0 518.0 523.0 534.0 535.0 540.0 542.0 545.0 545.0 547.0 542.0 541.0 543.0 549.0 560.0 568.0 568.0 549.0 539.0 538.0 538.0 538.0 541.0 544.0 551.0 554.0 559.0 561.0 565.0 567.0 568.0 570.0 572.0 573.0 572.0 576.0 576.0 576.0 577.0 578.0 578.0 580.0 580.0 580.0 579.0 580.0 581.0 582.0 582.0 588.0 590.0 591.0 594.0 592.0 592.0 593.0 593.0 594.0 595.0 597.0 598.0 602.0 600.0 598.0 596.0 595.0 595.0 595.0
819.0 803.0 787.0 788.0 796.0 841.0 832.0 828.0 811.0 784.0 782.0 774.0 739.0 734.0 727.0 717.0 706.0 697.0 682.0 648.0 630.0 614.0 593.0 592.0 583.0 578.0 559.0 555.0 552.0 550.0 546.0 541.0 533.0 516.0 518.0 521.0 528.0 530.0 534.0 535.0 535.0 535.0 536.0 537.0 533.0 537.0 540.0 549.0 541.0 543.0 536.0 535.0 534.0 535.0 536.0 542.0 545.0 558.0 562.0 565.0 568.0 572.0 574.0 575.0 574.0 576.0 579.0 579.0 585.0 583.0 582.0 582.0 584.0 584.0 587.0 587.0 587.0 586.0 582.0 583.0 583.0 585.0 586.0 588.0 590.0 596.0 594.0 595.0 597.0 598.0 600.0 604.0 605.0 605.0 604.0 604.0 600.0 598.0 595.0 594.0 594.0
874.0 863.0 895.0 899.0 901.0 886.0 882.0 880.0 860.0 830.0 822.0 812.0 787.0 786.0 778.0 765.0 743.0 729.0 713.0 673.0 644.0 619.0 607.0 613.0 605.0 604.0 577.0 575.0 569.0 563.0 550.0 543.0 535.0 515.0 515.0 517.0 521.0 526.0 529.0 530.0 530.0 531.0 530.0 531.0 524.0 527.0 528.0 529.0 529.0 531.0 528.0 527.0 530.0 531.0 534.0 540.0 546.0 565.0 569.0 569.0 569.0 575.0 579.0 580.0 575.0 578.0 582.0 585.0 596.0 592.0 586.0 587.0 590.0 594.0 600.0 609.0 603.0 597.0 588.0 586.0 587.0 587.0 589.0 589.0 589.0 593.0 596.0 595.0 597.0 600.0 603.0 606.0 608.0 608.0 608.0 605.0 602.0 600.0 596.0 594.0 594.0
909.0 904.0 907.0 912.0 916.0 920.0 924.0 916.0 903.0 881.0 872.0 861.0 846.0 845.0 831.0 813.0 784.0 770.0 748.0 685.0 655.0 637.0 640.0 646.0 639.0 633.0 604.0 594.0 583.0 572.0 548.0 539.0 530.0 515.0 514.0 514.0 517.0 523.0 526.0 527.0 526.0 519.0 519.0 520.0 521.0 526.0 524.0 523.0 523.0 524.0 525.0 528.0 531.0 535.0 538.0 539.0 541.0 546.0 556.0 558.0 559.0 569.0 574.0 573.0 574.0 578.0 582.0 589.0 611.0 605.0 597.0 593.0 596.0 603.0 615.0 637.0 631.0 617.0 594.0 593.0 590.0 591.0 590.0 590.0 596.0 597.0 597.0 596.0 598.0 600.0 603.0 603.0 607.0 609.0 608.0 605.0 605.0 601.0 599.0 598.0 594.0
874.0 872.0 883.0 892.0 906.0 918.0 919.0 913.0 913.0 920.0 918.0 912.0 890.0 889.0 883.0 870.0 834.0 813.0 783.0 703.0 685.0 675.0 671.0 677.0 669.0 656.0 623.0 608.0 592.0 574.0 555.0 554.0 546.0 520.0 513.0 514.0 514.0 517.0 519.0 517.0 520.0 515.0 515.0 516.0 518.0 519.0 520.0 520.0 523.0 525.0 529.0 536.0 539.0 542.0 547.0 546.0 546.0 547.0 551.0 554.0 555.0 561.0 562.0 566.0 568.0 578.0 582.0 591.0 613.0 611.0 606.0 607.0 613.0 621.0 629.0 642.0 636.0 624.0 602.0 598.0 599.0 598.0 599.0 601.0 601.0 602.0 601.0 601.0 600.0 605.0 604.0 606.0 607.0 607.0 608.0 606.0 603.0 602.0 600.0 598.0 597.0
829.0 822.0 835.0 843.0 865.0 893.0 887.0 871.0 877.0 913.0 921.0 924.0 921.0 920.0 921.0 918.0 899.0 866.0 831.0 795.0 762.0 737.0 721.0 705.0 693.0 678.0 640.0 619.0 603.0 594.0 579.0 573.0 560.0 525.0 535.0 522.0 518.0 510.0 512.0 512.0 512.0 513.0 513.0 513.0 514.0 512.0 515.0 522.0 526.0 534.0 538.0 546.0 546.0 551.0 557.0 558.0 556.0 553.0 555.0 558.0 562.0 566.0 566.0 567.0 571.0 577.0 582.0 587.0 603.0 612.0 618.0 625.0 634.0 643.0 650.0 643.0 632.0 626.0 620.0 609.0 605.0 603.0 604.0 605.0 606.0 608.0 608.0 606.0 603.0 607.0 607.0 608.0 611.0 609.0 609.0 607.0 605.0 603.0 602.0 598.0 597.0
784.0 781.0 790.0 799.0 821.0 862.0 865.0 835.0 829.0 878.0 904.0 914.0 903.0 899.0 895.0 904.0 927.0 910.0 874.0 838.0 831.0 804.0 779.0 750.0 728.0 707.0 685.0 649.0 636.0 623.0 636.0 623.0 611.0 598.0 569.0 561.0 553.0 528.0 523.0 519.0 513.0 510.0 509.0 509.0 513.0 518.0 520.0 530.0 534.0 541.0 547.0 558.0 558.0 561.0 572.0 569.0 566.0 562.0 564.0 569.0 575.0 576.0 575.0 576.0 575.0 578.0 580.0 584.0 598.0 606.0 613.0 627.0 650.0 653.0 652.0 641.0 634.0 628.0 623.0 614.0 612.0 610.0 609.0 612.0 615.0 615.0 613.0 611.0 610.0 611.0 611.0 612.0 612.0 612.0 612.0 609.0 608.0 606.0 602.0 600.0 598.0
750.0 755.0 743.0 756.0 781.0 823.0 816.0 784.0 770.0 863.0 901.0 900.0 865.0 848.0 839.0 855.0 916.0 925.0 910.0 888.0 887.0 864.0 848.0 801.0 768.0 743.0 728.0 741.0 717.0 699.0 671.0 656.0 642.0 629.0 607.0 595.0 587.0 568.0 559.0 551.0 543.0 525.0 514.0 513.0 526.0 532.0 537.0 541.0 543.0 550.0 560.0 577.0 579.0 581.0 588.0 584.0 577.0 573.0 573.0 579.0 585.0 585.0 586.0 588.0 587.0 588.0 588.0 588.0 593.0 596.0 600.0 604.0 622.0 629.0 631.0 629.0 629.0 629.0 627.0 621.0 621.0 620.0 619.0 621.0 624.0 625.0 619.0 618.0 617.0 618.0 615.0 616.0 615.0 620.0 619.0 615.0 611.0 608.0 605.0 603.0 600.0
719.0 726.0 710.0 716.0 741.0 765.0 770.0 729.0 731.0 840.0 875.0 871.0 821.0 793.0 792.0 811.0 888.0 917.0 926.0 927.0 933.0 920.0 903.0 880.0 864.0 849.0 831.0 787.0 762.0 747.0 714.0 700.0 683.0 668.0 650.0 635.0 619.0 594.0 583.0 568.0 555.0 524.0 514.0 529.0 550.0 559.0 568.0 568.0 562.0 567.0 575.0 601.0 608.0 609.0 609.0 605.0 598.0 591.0 586.0 591.0 599.0 596.0 597.0 603.0 602.0 601.0 621.0 617.0 612.0 611.0 611.0 610.0 616.0 618.0 621.0 624.0 630.0 633.0 633.0 632.0 630.0 630.0 630.0 633.0 634.0 633.0 626.0 625.0 624.0 623.0 622.0 620.0 623.0 628.0 625.0 619.0 612.0 610.0 608.0 604.0 603.0
696.0 704.0 702.0 686.0 691.0 706.0 717.0 685.0 718.0 800.0 833.0 834.0 795.0 742.0 750.0 771.0 859.0 904.0 928.0 934.0 859.0 853.0 844.0 861.0 880.0 880.0 866.0 827.0 809.0 793.0 753.0 741.0 727.0 716.0 696.0 684.0 665.0 621.0 602.0 581.0 556.0 515.0 535.0 555.0 582.0 593.0 601.0 605.0 600.0 603.0 610.0 633.0 640.0 641.0 642.0 633.0 628.0 627.0 610.0 615.0 617.0 620.0 614.0 643.0 647.0 646.0 645.0 640.0 635.0 633.0 635.0 632.0 626.0 627.0 627.0 635.0 638.0 641.0 645.0 645.0 644.0 645.0 647.0 645.0 646.0 644.0 636.0 634.0 632.0 629.0 630.0 631.0 634.0 634.0 628.0 622.0 615.0 612.0 611.0 607.0 605.0
692.0 680.0 673.0 659.0 656.0 670.0 674.0 659.0 685.0 713.0 781.0 776.0 754.0 706.0 734.0 779.0 824.0 892.0 901.0 868.0 799.0 796.0 782.0 813.0 847.0 869.0 868.0 844.0 828.0 804.0 756.0 741.0 729.0 720.0 710.0 696.0 675.0 628.0 608.0 589.0 552.0 530.0 568.0 592.0 616.0 624.0 630.0 636.0 651.0 658.0 661.0 677.0 684.0 682.0 679.0 672.0 670.0 663.0 652.0 692.0 688.0 686.0 677.0 680.0 683.0 677.0 675.0 669.0 668.0 667.0 666.0 660.0 644.0 641.0 643.0 650.0 656.0 659.0 661.0 663.0 664.0 663.0 664.0 660.0 659.0 656.0 646.0 644.0 640.0 638.0 639.0 640.0 642.0 636.0 630.0 624.0 620.0 616.0 614.0 612.0 606.0
733.0 704.0 674.0 648.0 640.0 641.0 645.0 644.0 663.0 694.0 749.0 730.0 708.0 685.0 713.0 754.0 799.0 860.0 862.0 822.0 756.0 745.0 723.0 733.0 826.0 854.0 854.0 825.0 807.0 782.0 742.0 694.0 676.0 672.0 674.0 662.0 645.0 608.0 592.0 571.0 532.0 535.0 578.0 622.0 658.0 663.0 672.0 679.0 706.0 717.0 720.0 727.0 733.0 729.0 726.0 715.0 764.0 757.0 746.0 742.0 738.0 733.0 724.0 722.0 724.0 718.0 714.0 711.0 710.0 707.0 704.0 693.0 669.0 661.0 669.0 676.0 683.0 684.0 685.0 685.0 683.0 683.0 683.0 677.0 672.0 668.0 657.0 653.0 652.0 651.0 650.0 649.0 645.0 637.0 631.0 628.0 623.0 620.0 619.0 622.0 618.0
734.0 732.0 721.0 682.0 667.0 641.0 627.0 642.0 664.0 697.0 707.0 692.0 661.0 680.0 722.0 766.0 795.0 829.0 834.0 785.0 720.0 704.0 684.0 707.0 791.0 823.0 827.0 790.0 774.0 775.0 749.0 659.0 633.0 617.0 623.0 623.0 612.0 598.0 568.0 551.0 520.0 529.0 568.0 602.0 629.0 683.0 708.0 724.0 751.0 763.0 765.0 772.0 785.0 792.0 801.0 811.0 811.0 807.0 796.0 793.0 788.0 781.0 774.0 772.0 769.0 761.0 756.0 755.0 754.0 754.0 749.0 738.0 704.0 696.0 702.0 711.0 716.0 718.0 717.0 713.0 712.0 708.0 703.0 695.0 692.0 684.0 672.0 668.0 665.0 663.0 658.0 655.0 649.0 640.0 636.0 639.0 638.0 634.0 632.0 627.0 621.0
693.0 703.0 723.0 731.0 709.0 674.0 634.0 616.0 619.0 635.0 657.0 647.0 635.0 694.0 735.0 750.0 757.0 805.0 818.0 790.0 684.0 659.0 647.0 671.0 747.0 784.0 778.0 748.0 732.0 746.0 753.0 689.0 657.0 623.0 582.0 582.0 578.0 572.0 549.0 531.0 510.0 519.0 542.0 565.0 590.0 661.0 694.0 717.0 735.0 710.0 701.0 708.0 739.0 750.0 776.0 804.0 815.0 817.0 823.0 822.0 819.0 816.0 812.0 812.0 814.0 811.0 809.0 806.0 805.0 801.0 795.0 786.0 748.0 741.0 747.0 755.0 759.0 759.0 758.0 750.0 745.0 739.0 732.0 719.0 710.0 702.0 689.0 684.0 682.0 676.0 666.0 662.0 665.0 656.0 654.0 649.0 647.0 643.0 640.0 638.0 630.0
659.0 673.0 698.0 670.0 665.0 658.0 648.0 615.0 605.0 608.0 618.0 620.0 640.0 700.0 710.0 702.0 703.0 770.0 792.0 771.0 666.0 632.0 624.0 649.0 719.0 747.0 744.0 696.0 689.0 708.0 720.0 690.0 656.0 624.0 575.0 558.0 549.0 545.0 538.0 525.0 503.0 536.0 563.0 587.0 614.0 659.0 664.0 654.0 655.0 668.0 656.0 670.0 684.0 697.0 732.0 763.0 787.0 801.0 805.0 815.0 812.0 806.0 809.0 816.0 825.0 832.0 849.0 848.0 846.0 843.0 837.0 829.0 798.0 789.0 799.0 804.0 803.0 803.0 799.0 790.0 781.0 774.0 768.0 749.0 739.0 727.0 711.0 705.0 723.0 715.0 699.0 690.0 684.0 673.0 667.0 662.0 659.0 655.0 653.0 647.0 638.0
633.0 650.0 654.0 637.0 630.0 623.0 618.0 605.0 600.0 600.0 614.0 635.0 666.0 690.0 681.0 658.0 673.0 761.0 772.0 736.0 647.0 615.0 607.0 626.0 671.0 698.0 708.0 651.0 644.0 660.0 669.0 667.0 648.0 617.0 559.0 549.0 537.0 530.0 523.0 515.0 501.0 560.0 600.0 617.0 626.0 625.0 628.0 618.0 628.0 632.0 625.0 644.0 645.0 672.0 694.0 724.0 750.0 771.0 766.0 782.0 774.0 763.0 772.0 787.0 798.0 805.0 845.0 853.0 857.0 854.0 852.0 849.0 843.0 836.0 839.0 841.0 838.0 839.0 838.0 834.0 819.0 814.0 806.0 784.0 774.0 797.0 778.0 766.0 756.0 746.0 726.0 717.0 708.0 693.0 685.0 681.0 676.0 670.0 666.0 660.0 651.0
623.0 641.0 659.0 652.0 634.0 621.0 612.0 600.0 595.0 593.0 608.0 628.0 652.0 668.0 655.0 635.0 662.0 745.0 757.0 722.0 671.0 606.0 586.0 590.0 626.0 660.0 694.0 673.0 608.0 610.0 616.0 625.0 620.0 606.0 554.0 538.0 532.0 527.0 507.0 500.0 508.0 569.0 579.0 583.0 586.0 577.0 580.0 579.0 593.0 600.0 607.0 617.0 619.0 638.0 652.0 691.0 718.0 731.0 716.0 742.0 729.0 719.0 729.0 746.0 744.0 753.0 812.0 833.0 841.0 843.0 843.0 839.0 842.0 844.0 845.0 845.0 843.0 843.0 845.0 846.0 843.0 838.0 839.0 838.0 832.0 829.0 821.0 802.0 791.0 778.0 757.0 750.0 742.0 723.0 715.0 709.0 703.0 691.0 686.0 679.0 664.0
617.0 627.0 653.0 678.0 661.0 642.0 626.0 608.0 598.0 589.0 597.0 609.0 625.0 632.0 629.0 617.0 633.0 709.0 743.0 731.0 690.0 623.0 586.0 572.0 602.0 645.0 678.0 667.0 586.0 572.0 576.0 587.0 585.0 575.0 555.0 517.0 513.0 510.0 499.0 497.0 516.0 543.0 556.0 547.0 551.0 561.0 575.0 581.0 603.0 609.0 603.0 596.0 623.0 635.0 640.0 682.0 700.0 692.0 669.0 701.0 679.0 683.0 689.0 702.0 698.0 719.0 776.0 801.0 807.0 820.0 807.0 806.0 814.0 827.0 823.0 827.0 831.0 831.0 821.0 825.0 818.0 824.0 828.0 832.0 833.0 833.0 832.0 831.0 826.0 815.0 794.0 787.0 777.0 767.0 751.0 744.0 735.0 721.0 711.0 703.0 696.0
617.0 617.0 650.0 705.0 699.0 677.0 658.0 632.0 615.0 590.0 591.0 600.0 611.0 608.0 603.0 600.0 615.0 674.0 704.0 702.0 676.0 616.0 584.0 562.0 583.0 615.0 653.0 673.0 616.0 577.0 556.0 540.0 529.0 529.0 526.0 509.0 504.0 501.0 492.0 503.0 536.0 554.0 542.0 549.0 571.0 602.0 610.0 621.0 619.0 604.0 590.0 592.0 661.0 675.0 674.0 672.0 670.0 650.0 630.0 660.0 635.0 645.0 648.0 655.0 659.0 679.0 739.0 773.0 773.0 790.0 774.0 768.0 783.0 792.0 750.0 763.0 766.0 784.0 803.0 809.0 791.0 807.0 816.0 819.0 822.0 825.0 826.0 829.0 829.0 829.0 828.0 824.0 819.0 812.0 791.0 782.0 773.0 758.0 748.0 734.0 725.0
609.0 621.0 664.0 706.0 730.0 714.0 700.0 670.0 647.0 605.0 580.0 587.0 591.0 593.0 585.0 590.0 603.0 644.0 669.0 663.0 637.0 591.0 569.0 556.0 564.0 592.0 627.0 648.0 593.0 578.0 563.0 532.0 519.0 514.0 511.0 501.0 497.0 493.0 497.0 518.0 537.0 536.0 529.0 560.0 589.0 621.0 630.0 633.0 618.0 575.0 583.0 615.0 665.0 666.0 665.0 661.0 640.0 622.0 611.0 627.0 603.0 603.0 609.0 622.0 636.0 664.0 729.0 745.0 748.0 767.0 756.0 735.0 739.0 736.0 735.0 748.0 742.0 760.0 779.0 788.0 762.0 790.0 800.0 789.0 802.0 815.0 820.0 822.0 822.0 823.0 822.0 823.0 826.0 829.0 825.0 819.0 816.0 796.0 786.0 771.0 759.0
602.0 618.0 651.0 687.0 710.0 708.0 709.0 694.0 674.0 638.0 608.0 578.0 573.0 575.0 577.0 584.0 589.0 603.0 648.0 639.0 616.0 570.0 557.0 549.0 544.0 553.0 564.0 565.0 551.0 542.0 532.0 515.0 510.0 509.0 506.0 497.0 492.0 490.0 511.0 526.0 528.0 517.0 526.0 552.0 577.0 605.0 614.0 612.0 592.0 568.0 597.0 614.0 623.0 628.0 645.0 642.0 618.0 600.0 588.0 597.0 587.0 593.0 604.0 627.0 641.0 658.0 692.0 748.0 753.0 750.0 733.0 728.0 725.0 723.0 723.0 733.0 736.0 722.0 746.0 756.0 740.0 770.0 776.0 749.0 775.0 794.0 805.0 815.0 814.0 812.0 799.0 800.0 811.0 819.0 823.0 824.0 827.0 825.0 820.0 811.0 798.0
595.0 608.0 635.0 659.0 662.0 663.0 668.0 677.0 679.0 666.0 644.0 602.0 580.0 567.0 582.0 599.0 606.0 616.0 632.0 621.0 597.0 556.0 548.0 543.0 532.0 549.0 549.0 543.0 525.0 519.0 514.0 506.0 504.0 503.0 500.0 492.0 489.0 491.0 520.0 521.0 513.0 505.0 538.0 553.0 564.0 577.0 574.0 570.0 564.0 580.0 589.0 579.0 578.0 588.0 614.0 619.0 593.0 583.0 565.0 573.0 580.0 607.0 639.0 757.0 771.0 781.0 785.0 784.0 775.0 770.0 748.0 734.0 721.0 714.0 717.0 723.0 728.0 706.0 713.0 721.0 720.0 746.0 747.0 720.0 742.0 762.0 781.0 797.0 796.0 788.0 781.0 770.0 798.0 808.0 810.0 813.0 815.0 820.0 820.0 822.0 818.0
589.0 596.0 609.0 619.0 616.0 621.0 624.0 630.0 637.0 641.0 644.0 615.0 588.0 568.0 599.0 626.0 638.0 658.0 641.0 622.0 600.0 561.0 545.0 537.0 529.0 543.0 550.0 546.0 525.0 516.0 509.0 505.0 501.0 498.0 496.0 488.0 490.0 492.0 493.0 501.0 498.0 504.0 558.0 579.0 578.0 547.0 541.0 547.0 552.0 580.0 565.0 552.0 571.0 584.0 600.0 594.0 572.0 567.0 557.0 590.0 653.0 684.0 709.0 767.0 777.0 782.0 782.0 781.0 778.0 780.0 769.0 756.0 739.0 710.0 710.0 720.0 726.0 716.0 698.0 694.0 704.0 721.0 720.0 700.0 722.0 745.0 756.0 766.0 768.0 752.0 740.0 754.0 782.0 795.0 788.0 796.0 802.0 805.0 812.0 812.0 814.0
586.0 590.0 589.0 586.0 584.0 583.0 586.0 587.0 590.0 597.0 604.0 599.0 579.0 565.0 595.0 625.0 637.0 640.0 622.0 623.0 626.0 591.0 568.0 544.0 527.0 527.0 533.0 535.0 529.0 519.0 509.0 503.0 500.0 501.0 503.0 496.0 493.0 489.0 488.0 488.0 492.0 504.0 556.0 568.0 557.0 541.0 549.0 569.0 575.0 554.0 544.0 563.0 591.0 611.0 613.0 588.0 543.0 566.0 596.0 624.0 642.0 659.0 678.0 723.0 741.0 761.0 767.0 767.0 765.0 765.0 764.0 758.0 751.0 710.0 710.0 728.0 742.0 739.0 725.0 699.0 680.0 686.0 687.0 685.0 712.0 730.0 731.0 724.0 734.0 722.0 700.0 741.0 766.0 777.0 753.0 773.0 790.0 796.0 802.0 801.0 779.0
581.0 584.0 579.0 574.0 566.0 565.0 564.0 559.0 560.0 565.0 567.0 554.0 554.0 554.0 585.0 602.0 610.0 608.0 583.0 591.0 608.0 612.0 586.0 559.0 536.0 514.0 512.0 513.0 516.0 513.0 505.0 502.0 499.0 501.0 503.0 494.0 490.0 488.0 488.0 487.0 491.0 500.0 527.0 534.0 528.0 521.0 546.0 562.0 557.0 530.0 553.0 584.0 609.0 584.0 581.0 565.0 539.0 567.0 579.0 583.0 592.0 602.0 614.0 644.0 674.0 695.0 729.0 739.0 739.0 741.0 741.0 741.0 739.0 705.0 712.0 736.0 754.0 760.0 754.0 735.0 687.0 674.0 684.0 698.0 715.0 722.0 723.0 700.0 700.0 699.0 687.0 727.0 747.0 751.0 722.0 754.0 745.0 742.0 747.0 731.0 745.0
575.0 571.0 569.0 566.0 560.0 559.0 561.0 565.0 560.0 554.0 548.0 547.0 549.0 550.0 555.0 573.0 576.0 574.0 549.0 552.0 558.0 587.0 574.0 551.0 532.0 507.0 506.0 507.0 504.0 503.0 501.0 500.0 495.0 493.0 493.0 487.0 485.0 484.0 484.0 488.0 490.0 496.0 517.0 518.0 516.0 512.0 521.0 529.0 525.0 511.0 518.0 530.0 538.0 539.0 537.0 530.0 532.0 537.0 544.0 550.0 556.0 561.0 570.0 594.0 611.0 624.0 648.0 681.0 689.0 695.0 697.0 705.0 713.0 710.0 710.0 732.0 747.0 762.0 762.0 754.0 694.0 686.0 715.0 732.0 744.0 743.0 736.0 709.0 694.0 681.0 675.0 704.0 717.0 691.0 691.0 710.0 713.0 710.0 711.0 702.0 728.0
577.0 580.0 579.0 579.0 601.0 591.0 584.0 587.0 592.0 576.0 562.0 544.0 544.0 548.0 550.0 549.0 548.0 545.0 531.0 527.0 524.0 534.0 541.0 525.0 514.0 517.0 519.0 511.0 504.0 501.0 499.0 499.0 493.0 492.0 491.0 487.0 485.0 484.0 484.0 484.0 488.0 492.0 504.0 507.0 506.0 508.0 501.0 500.0 501.0 501.0 504.0 509.0 511.0 518.0 520.0 529.0 553.0 559.0 565.0 565.0 570.0 570.0 570.0 572.0 579.0 583.0 595.0 615.0 628.0 639.0 651.0 667.0 684.0 692.0 713.0 728.0 740.0 756.0 759.0 750.0 720.0 690.0 732.0 751.0 759.0 760.0 753.0 740.0 711.0 713.0 689.0 667.0 671.0 670.0 686.0 694.0 694.0 699.0 681.0 680.0 698.0
587.0 606.0 616.0 626.0 633.0 623.0 614.0 620.0 631.0 611.0 594.0 548.0 540.0 543.0 543.0 539.0 536.0 533.0 528.0 526.0 523.0 522.0 519.0 513.0 512.0 521.0 520.0 512.0 510.0 507.0 500.0 498.0 495.0 494.0 494.0 491.0 488.0 483.0 483.0 481.0 483.0 486.0 493.0 492.0 496.0 496.0 493.0 493.0 493.0 503.0 506.0 510.0 516.0 534.0 537.0 553.0 587.0 595.0 610.0 610.0 613.0 606.0 606.0 606.0 604.0 598.0 597.0 609.0 613.0 617.0 652.0 681.0 691.0 698.0 716.0 724.0 729.0 740.0 744.0 737.0 706.0 681.0 720.0 742.0 759.0 761.0 750.0 748.0 736.0 730.0 716.0 669.0 662.0 672.0 675.0 688.0 696.0 702.0 681.0 672.0 665.0
605.0 601.0 605.0 612.0 652.0 664.0 656.0 662.0 673.0 653.0 633.0 563.0 543.0 540.0 540.0 535.0 532.0 532.0 533.0 532.0 530.0 524.0 517.0 516.0 517.0 515.0 514.0 515.0 516.0 526.0 510.0 504.0 500.0 498.0 496.0 496.0 500.0 493.0 483.0 480.0 480.0 479.0 481.0 486.0 489.0 489.0 489.0 489.0 498.0 510.0 513.0 517.0 528.0 570.0 572.0 584.0 633.0 647.0 668.0 675.0 667.0 657.0 659.0 663.0 654.0 643.0 636.0 652.0 661.0 666.0 678.0 689.0 695.0 700.0 709.0 714.0 716.0 716.0 723.0 722.0 680.0 671.0 701.0 714.0 729.0 733.0 732.0 731.0 727.0 725.0 717.0 672.0 659.0 667.0 679.0 703.0 713.0 720.0 708.0 701.0 693.0
637.0 630.0 628.0 631.0 631.0 670.0 686.0 706.0 709.0 683.0 653.0 591.0 561.0 543.0 541.0 537.0 539.0 543.0 542.0 541.0 537.0 530.0 524.0 523.0 524.0 520.0 518.0 518.0 517.0 518.0 512.0 509.0 502.0 496.0 497.0 508.0 534.0 537.0 537.0 497.0 485.0 480.0 480.0 481.0 483.0 485.0 486.0 494.0 509.0 524.0 529.0 531.0 531.0 561.0 579.0 606.0 645.0 718.0 736.0 740.0 730.0 721.0 721.0 719.0 709.0 695.0 683.0 705.0 718.0 725.0 717.0 709.0 697.0 695.0 703.0 706.0 706.0 685.0 690.0 655.0 643.0 636.0 664.0 675.0 686.0 688.0 696.0 701.0 707.0 710.0 705.0 671.0 650.0 672.0 697.0 722.0 730.0 733.0 734.0 735.0 735.0
670.0 670.0 670.0 669.0 663.0 670.0 687.0 718.0 685.0 654.0 624.0 605.0 570.0 558.0 562.0 571.0 571.0 567.0 555.0 559.0 554.0 545.0 536.0 536.0 537.0 529.0 522.0 519.0 518.0 516.0 511.0 510.0 503.0 502.0 503.0 511.0 526.0 523.0 529.0 515.0 507.0 499.0 487.0 477.0 478.0 480.0 489.0 498.0 509.0 517.0 543.0 556.0 564.0 567.0 568.0 596.0 643.0 736.0 755.0 760.0 760.0 758.0 757.0 755.0 750.0 743.0 738.0 760.0 767.0 764.0 752.0 710.0 693.0 684.0 689.0 655.0 649.0 626.0 617.0 617.0 608.0 605.0 617.0 626.0 641.0 643.0 649.0 655.0 667.0 674.0 679.0 648.0 629.0 666.0 693.0 719.0 725.0 727.0 727.0 736.0 740.0
658.0 685.0 694.0 693.0 690.0 698.0 704.0 720.0 688.0 658.0 636.0 615.0 590.0 592.0 605.0 615.0 606.0 586.0 573.0 586.0 584.0 564.0 558.0 559.0 558.0 554.0 533.0 524.0 521.0 529.0 528.0 522.0 512.0 510.0 506.0 504.0 511.0 502.0 504.0 494.0 493.0 495.0 490.0 477.0 476.0 476.0 499.0 505.0 506.0 514.0 547.0 574.0 598.0 610.0 599.0 607.0 645.0 706.0 734.0 749.0 761.0 768.0 771.0 771.0 779.0 778.0 781.0 787.0 785.0 775.0 761.0 755.0 742.0 722.0 678.0 660.0 644.0 634.0 616.0 609.0 604.0 585.0 585.0 585.0 590.0 601.0 603.0 606.0 619.0 627.0 633.0 606.0 597.0 636.0 663.0 682.0 686.0 688.0 688.0 700.0 709.0
630.0 655.0 657.0 655.0 661.0 671.0 672.0 679.0 687.0 682.0 673.0 660.0 638.0 636.0 645.0 653.0 635.0 615.0 605.0 615.0 604.0 583.0 588.0 590.0 586.0 570.0 539.0 535.0 538.0 544.0 555.0 549.0 539.0 524.0 515.0 505.0 493.0 490.0 487.0 485.0 479.0 482.0 480.0 476.0 474.0 475.0 510.0 509.0 506.0 512.0 540.0 565.0 590.0 626.0 628.0 628.0 642.0 662.0 692.0 702.0 723.0 744.0 750.0 765.0 784.0 791.0 798.0 804.0 809.0 808.0 808.0 795.0 780.0 763.0 720.0 705.0 688.0 672.0 647.0 637.0 626.0 602.0 598.0 593.0 584.0 574.0 569.0 566.0 570.0 578.0 579.0 579.0 576.0 603.0 617.0 628.0 634.0 635.0 638.0 651.0 657.0
616.0 625.0 629.0 634.0 638.0 650.0 654.0 655.0 672.0 678.0 675.0 672.0 667.0 660.0 657.0 650.0 641.0 629.0 625.0 629.0 619.0 608.0 577.0 566.0 557.0 551.0 539.0 541.0 547.0 557.0 578.0 582.0 573.0 559.0 541.0 530.0 506.0 491.0 479.0 476.0 474.0 473.0 474.0 472.0 474.0 483.0 502.0 497.0 496.0 501.0 525.0 542.0 561.0 601.0 621.0 632.0 624.0 622.0 652.0 646.0 678.0 694.0 696.0 718.0 694.0 711.0 738.0 774.0 795.0 807.0 813.0 811.0 804.0 797.0 773.0 758.0 735.0 717.0 688.0 672.0 658.0 637.0 636.0 628.0 617.0 582.0 578.0 575.0 551.0 550.0 546.0 543.0 544.0 554.0 560.0 569.0 578.0 580.0 585.0 599.0 600.0
623.0 627.0 654.0 671.0 667.0 677.0 683.0 671.0 692.0 689.0 677.0 662.0 662.0 656.0 644.0 624.0 621.0 614.0 593.0 582.0 578.0 574.0 562.0 557.0 553.0 551.0 553.0 550.0 553.0 563.0 578.0 595.0 605.0 596.0 583.0 570.0 539.0 515.0 485.0 473.0 471.0 471.0 471.0 472.0 477.0 492.0 498.0 489.0 489.0 494.0 510.0 518.0 524.0 538.0 584.0 594.0 581.0 604.0 616.0 594.0 610.0 594.0 601.0 624.0 639.0 670.0 681.0 721.0 742.0 765.0 783.0 807.0 805.0 803.0 794.0 789.0 775.0 761.0 743.0 723.0 702.0 680.0 681.0 677.0 661.0 623.0 621.0 616.0 586.0 576.0 568.0 556.0 533.0 532.0 528.0 530.0 530.0 533.0 536.0 550.0 551.0
670.0 671.0 685.0 704.0 701.0 696.0 702.0 696.0 707.0 699.0 677.0 657.0 659.0 673.0 664.0 651.0 625.0 609.0 596.0 587.0 580.0 578.0 571.0 567.0 563.0 563.0 577.0 568.0 566.0 591.0 596.0 604.0 606.0 590.0 585.0 579.0 558.0 538.0 498.0 471.0 472.0 473.0 474.0 486.0 489.0 494.0 495.0 486.0 482.0 482.0 492.0 498.0 504.0 511.0 543.0 548.0 539.0 548.0 541.0 536.0 566.0 559.0 571.0 596.0 606.0 633.0 632.0 643.0 679.0 693.0 720.0 780.0 787.0 783.0 782.0 783.0 780.0 779.0 768.0 759.0 750.0 734.0 731.0 729.0 722.0 690.0 682.0 664.0 630.0 617.0 607.0 593.0 570.0 564.0 561.0 550.0 538.0 532.0 525.0 517.0 513.0
717.0 724.0 729.0 747.0 744.0 726.0 734.0 736.0 744.0 705.0 680.0 700.0 651.0 636.0 640.0 651.0 647.0 630.0 614.0 612.0 608.0 597.0 593.0 589.0 578.0 577.0 598.0 600.0 595.0 622.0 625.0 624.0 606.0 549.0 546.0 547.0 542.0 533.0 500.0 470.0 471.0 479.0 490.0 502.0 506.0 507.0 506.0 495.0 486.0 478.0 481.0 486.0 491.0 498.0 511.0 514.0 506.0 512.0 513.0 519.0 536.0 537.0 553.0 569.0 581.0 593.0 592.0 599.0 629.0 650.0 674.0 746.0 748.0 733.0 734.0 734.0 742.0 749.0 759.0 762.0 764.0 762.0 760.0 760.0 759.0 756.0 748.0 724.0 681.0 666.0 655.0 639.0 619.0 613.0 609.0 587.0 574.0 618.0 607.0 589.0 584.0
725.0 755.0 780.0 792.0 789.0 777.0 787.0 783.0 811.0 781.0 757.0 736.0 681.0 652.0 629.0 625.0 655.0 653.0 648.0 649.0 643.0 623.0 620.0 613.0 601.0 598.0 613.0 631.0 637.0 636.0 617.0 610.0 596.0 542.0 521.0 507.0 508.0 506.0 495.0 473.0 469.0 477.0 490.0 507.0 514.0 514.0 509.0 506.0 498.0 479.0 481.0 495.0 506.0 517.0 527.0 525.0 511.0 495.0 499.0 507.0 514.0 523.0 532.0 543.0 556.0 565.0 574.0 587.0 618.0 638.0 666.0 726.0 717.0 694.0 686.0 677.0 682.0 688.0 715.0 719.0 731.0 747.0 752.0 753.0 755.0 760.0 758.0 758.0 751.0 728.0 712.0 692.0 682.0 674.0 727.0 701.0 689.0 674.0 659.0 645.0 646.0
681.0 720.0 785.0 803.0 793.0 770.0 785.0 785.0 800.0 795.0 786.0 764.0 718.0 679.0 639.0 619.0 670.0 691.0 698.0 699.0 683.0 658.0 661.0 649.0 642.0 640.0 639.0 661.0 666.0 648.0 597.0 580.0 572.0 546.0 520.0 503.0 495.0 486.0 480.0 473.0 465.0 472.0 485.0 500.0 520.0 516.0 501.0 479.0 473.0 466.0 478.0 496.0 510.0 524.0 544.0 542.0 514.0 503.0 525.0 545.0 552.0 554.0 555.0 554.0 586.0 598.0 614.0 632.0 672.0 687.0 706.0 750.0 730.0 704.0 688.0 664.0 649.0 643.0 659.0 665.0 677.0 697.0 713.0 711.0 712.0 727.0 733.0 738.0 744.0 746.0 725.0 726.0 742.0 746.0 748.0 746.0 736.0 728.0 717.0 715.0 717.0
677.0 679.0 690.0 708.0 693.0 717.0 722.0 728.0 754.0 743.0 748.0 735.0 725.0 692.0 638.0 618.0 691.0 727.0 737.0 741.0 733.0 712.0 713.0 698.0 696.0 689.0 682.0 703.0 702.0 676.0 624.0 595.0 567.0 535.0 527.0 523.0 516.0 499.0 490.0 483.0 465.0 465.0 475.0 479.0 500.0 498.0 493.0 472.0 465.0 462.0 460.0 471.0 479.0 491.0 529.0 530.0 506.0 493.0 558.0 583.0 594.0 590.0 583.0 586.0 632.0 656.0 675.0 683.0 714.0 737.0 750.0 767.0 756.0 743.0 729.0 703.0 682.0 657.0 622.0 625.0 638.0 668.0 671.0 660.0 662.0 680.0 692.0 723.0 721.0 717.0 722.0 725.0 737.0 731.0 721.0 715.0 702.0 706.0 716.0 716.0 712.0
654.0 641.0 656.0 671.0 650.0 650.0 669.0 681.0 697.0 691.0 682.0 678.0 678.0 666.0 633.0 611.0 682.0 708.0 706.0 730.0 738.0 729.0 730.0 729.0 732.0 731.0 737.0 746.0 744.0 718.0 665.0 636.0 608.0 576.0 571.0 565.0 555.0 525.0 512.0 502.0 479.0 468.0 464.0 476.0 488.0 481.0 475.0 464.0 462.0 458.0 456.0 456.0 458.0 460.0 488.0 487.0 480.0 485.0 535.0 554.0 568.0 563.0 550.0 568.0 593.0 652.0 664.0 652.0 691.0 721.0 735.0 744.0 752.0 749.0 745.0 742.0 733.0 710.0 634.0 607.0 625.0 650.0 645.0 660.0 703.0 732.0 736.0 739.0 738.0 736.0 737.0 733.0 729.0 727.0 715.0 698.0 655.0 656.0 668.0 669.0 662.0
615.0 611.0 626.0 637.0 624.0 633.0 640.0 644.0 660.0 666.0 643.0 632.0 630.0 629.0 616.0 600.0 650.0 660.0 652.0 658.0 690.0 684.0 686.0 690.0 695.0 709.0 732.0 726.0 730.0 723.0 693.0 680.0 659.0 632.0 623.0 615.0 633.0 579.0 542.0 518.0 480.0 466.0 464.0 464.0 470.0 467.0 466.0 458.0 457.0 457.0 456.0 456.0 456.0 457.0 467.0 470.0 469.0 476.0 500.0 511.0 519.0 521.0 531.0 564.0 589.0 620.0 621.0 608.0 652.0 681.0 696.0 695.0 714.0 711.0 703.0 736.0 742.0 735.0 699.0 626.0 592.0 581.0 648.0 689.0 716.0 727.0 724.0 721.0 719.0 714.0 712.0 700.0 687.0 698.0 705.0 709.0 659.0 628.0 624.0 625.0 608.0
583.0 586.0 598.0 602.0 604.0 612.0 623.0 623.0 640.0 652.0 647.0 630.0 618.0 601.0 594.0 588.0 612.0 616.0 619.0 636.0 655.0 638.0 638.0 637.0 648.0 673.0 695.0 676.0 676.0 681.0 663.0 671.0 673.0 646.0 620.0 606.0 594.0 574.0 546.0 526.0 485.0 472.0 464.0 462.0 464.0 463.0 461.0 459.0 460.0 459.0 458.0 456.0 455.0 454.0 469.0 475.0 482.0 486.0 496.0 499.0 497.0 503.0 514.0 534.0 549.0 584.0 587.0 572.0 622.0 647.0 649.0 638.0 666.0 658.0 637.0 698.0 684.0 692.0 684.0 605.0 575.0 570.0 650.0 687.0 709.0 713.0 705.0 698.0 687.0 662.0 657.0 648.0 635.0 651.0 662.0 678.0 662.0 632.0 600.0 581.0 572.0
600.0 598.0 607.0 607.0 610.0 614.0 622.0 630.0 634.0 626.0 630.0 626.0 620.0 601.0 590.0 581.0 599.0 609.0 625.0 642.0 628.0 605.0 602.0 624.0 653.0 677.0 684.0 640.0 642.0 651.0 590.0 606.0 642.0 648.0 597.0 578.0 565.0 537.0 527.0 520.0 508.0 477.0 468.0 464.0 462.0 461.0 462.0 468.0 478.0 473.0 461.0 455.0 455.0 457.0 481.0 492.0 502.0 510.0 536.0 538.0 534.0 531.0 527.0 522.0 524.0 545.0 548.0 550.0 601.0 617.0 606.0 597.0 607.0 584.0 567.0 621.0 639.0 649.0 638.0 594.0 561.0 555.0 622.0 651.0 664.0 678.0 667.0 650.0 633.0 614.0 596.0 597.0 583.0 601.0 621.0 655.0 659.0 629.0 589.0 558.0 525.0
628.0 633.0 644.0 638.0 637.0 649.0 652.0 651.0 643.0 626.0 616.0 607.0 600.0 590.0 584.0 576.0 601.0 625.0 640.0 646.0 606.0 591.0 608.0 649.0 666.0 668.0 631.0 597.0 609.0 623.0 570.0 590.0 623.0 642.0 616.0 605.0 596.0 556.0 534.0 517.0 498.0 479.0 473.0 470.0 475.0 488.0 509.0 526.0 513.0 486.0 462.0 455.0 463.0 482.0 494.0 497.0 516.0 536.0 576.0 584.0 581.0 580.0 577.0 566.0 556.0 542.0 543.0 546.0 569.0 571.0 549.0 539.0 567.0 551.0 544.0 581.0 602.0 614.0 605.0 571.0 558.0 548.0 589.0 603.0 612.0 636.0 624.0 603.0 585.0 573.0 558.0 554.0 553.0 581.0 614.0 644.0 643.0 642.0 617.0 588.0 535.0
665.0 676.0 696.0 679.0 677.0 688.0 690.0 680.0 663.0 664.0 647.0 632.0 620.0 608.0 600.0 588.0 580.0 598.0 610.0 613.0 585.0 588.0 610.0 609.0 600.0 588.0 589.0 575.0 584.0 592.0 559.0 568.0 596.0 617.0 597.0 595.0 604.0 572.0 542.0 517.0 499.0 494.0 485.0 476.0 479.0 497.0 514.0 520.0 504.0 478.0 456.0 467.0 495.0 519.0 512.0 511.0 539.0 570.0 618.0 633.0 638.0 639.0 624.0 615.0 607.0 633.0 629.0 626.0 621.0 604.0 572.0 540.0 527.0 525.0 532.0 574.0 590.0 595.0 586.0 565.0 554.0 543.0 559.0 564.0 580.0 605.0 594.0 579.0 567.0 538.0 534.0 546.0 569.0 597.0 610.0 617.0 588.0 604.0 618.0 609.0 585.0
729.0 735.0 744.0 736.0 733.0 737.0 727.0 719.0 710.0 709.0 690.0 676.0 666.0 649.0 636.0 618.0 598.0 572.0 577.0 566.0 605.0 621.0 634.0 637.0 614.0 601.0 588.0 560.0 556.0 554.0 539.0 552.0 566.0 574.0 563.0 558.0 578.0 567.0 543.0 524.0 518.0 517.0 506.0 496.0 490.0 490.0 487.0 480.0 466.0 455.0 450.0 465.0 480.0 488.0 488.0 511.0 542.0 570.0 615.0 629.0 641.0 649.0 582.0 581.0 590.0 617.0 625.0 631.0 638.0 640.0 622.0 575.0 514.0 541.0 567.0 595.0 619.0 619.0 609.0 585.0 572.0 549.0 538.0 547.0 564.0 586.0 585.0 568.0 552.0 520.0 525.0 543.0 564.0 576.0 579.0 577.0 547.0 567.0 576.0 582.0 581.0
776.0 773.0 773.0 776.0 770.0 768.0 757.0 755.0 753.0 749.0 735.0 720.0 713.0 697.0 679.0 659.0 671.0 592.0 562.0 574.0 636.0 660.0 670.0 677.0 659.0 645.0 628.0 592.0 585.0 579.0 567.0 538.0 538.0 534.0 527.0 523.0 534.0 544.0 535.0 531.0 530.0 538.0 534.0 527.0 516.0 506.0 487.0 470.0 449.0 449.0 450.0 460.0 465.0 469.0 472.0 491.0 512.0 531.0 523.0 532.0 551.0 562.0 531.0 534.0 549.0 570.0 564.0 576.0 590.0 626.0 621.0 578.0 525.0 581.0 623.0 648.0 656.0 657.0 649.0 627.0 607.0 577.0 544.0 539.0 552.0 577.0 586.0 578.0 566.0 523.0 546.0 562.0 571.0 550.0 539.0 531.0 516.0 531.0 531.0 538.0 540.0
759.0 763.0 766.0 767.0 769.0 763.0 762.0 764.0 765.0 764.0 756.0 748.0 726.0 733.0 727.0 717.0 693.0 594.0 559.0 571.0 623.0 656.0 688.0 702.0 689.0 682.0 672.0 643.0 639.0 631.0 609.0 579.0 562.0 552.0 527.0 519.0 513.0 508.0 502.0 504.0 505.0 516.0 521.0 519.0 520.0 514.0 496.0 480.0 447.0 448.0 448.0 457.0 460.0 462.0 464.0 464.0 475.0 484.0 505.0 516.0 539.0 547.0 495.0 500.0 515.0 515.0 511.0 528.0 538.0 581.0 576.0 541.0 516.0 566.0 605.0 629.0 657.0 666.0 669.0 664.0 646.0 621.0 571.0 525.0 548.0 574.0 572.0 545.0 532.0 520.0 551.0 570.0 587.0 560.0 540.0 524.0 507.0 497.0 501.0 485.0 484.0
705.0 717.0 720.0 722.0 725.0 716.0 726.0 737.0 739.0 677.0 672.0 667.0 676.0 691.0 692.0 692.0 682.0 602.0 562.0 552.0 596.0 640.0 673.0 681.0 682.0 684.0 685.0 680.0 677.0 671.0 655.0 632.0 614.0 603.0 572.0 553.0 551.0 538.0 522.0 507.0 496.0 489.0 487.0 479.0 483.0 489.0 480.0 463.0 448.0 448.0 448.0 447.0 451.0 452.0 455.0 459.0 458.0 467.0 506.0 518.0 530.0 531.0 483.0 470.0 480.0 482.0 480.0 488.0 499.0 539.0 529.0 509.0 501.0 533.0 561.0 578.0 609.0 625.0 639.0 660.0 655.0 633.0 585.0 531.0 570.0 610.0 597.0 552.0 510.0 517.0 580.0 598.0 605.0 577.0 558.0 582.0 576.0 564.0 539.0 517.0 485.0
639.0 653.0 660.0 653.0 662.0 651.0 602.0 627.0 630.0 624.0 616.0 609.0 623.0 632.0 632.0 637.0 640.0 606.0 576.0 547.0 586.0 612.0 624.0 629.0 628.0 636.0 639.0 653.0 661.0 662.0 663.0 659.0 655.0 647.0 610.0 601.0 602.0 595.0 572.0 555.0 534.0 506.0 502.0 491.0 484.0 471.0 467.0 458.0 446.0 447.0 444.0 446.0 445.0 447.0 448.0 450.0 449.0 452.0 470.0 491.0 497.0 499.0 475.0 457.0 457.0 465.0 463.0 467.0 485.0 509.0 495.0 484.0 488.0 512.0 534.0 542.0 562.0 577.0 598.0 620.0 611.0 585.0 551.0 529.0 573.0 608.0 577.0 534.0 504.0 537.0 621.0 600.0 587.0 580.0 578.0 568.0 574.0 576.0 566.0 554.0 530.0
590.0 595.0 558.0 586.0 590.0 578.0 574.0 593.0 599.0 589.0 589.0 578.0 585.0 594.0 587.0 595.0 601.0 576.0 560.0 541.0 544.0 569.0 580.0 581.0 582.0 585.0 583.0 602.0 604.0 609.0 617.0 629.0 632.0 635.0 625.0 624.0 629.0 630.0 620.0 607.0 586.0 553.0 551.0 540.0 582.0 560.0 548.0 529.0 465.0 446.0 443.0 443.0 444.0 444.0 441.0 441.0 440.0 441.0 447.0 452.0 451.0 454.0 452.0 443.0 443.0 450.0 451.0 460.0 483.0 488.0 474.0 466.0 467.0 489.0 502.0 507.0 534.0 539.0 556.0 571.0 564.0 543.0 522.0 520.0 551.0 571.0 534.0 484.0 485.0 509.0 552.0 550.0 535.0 532.0 536.0 525.0 526.0 525.0 528.0 532.0 524.0
548.0 545.0 543.0 570.0 568.0 559.0 557.0 566.0 570.0 567.0 566.0 563.0 563.0 565.0 558.0 565.0 567.0 553.0 540.0 534.0 535.0 543.0 548.0 551.0 554.0 555.0 555.0 558.0 563.0 565.0 571.0 589.0 592.0 591.0 589.0 594.0 602.0 610.0 622.0 624.0 621.0 596.0 595.0 604.0 606.0 596.0 587.0 566.0 504.0 475.0 462.0 459.0 451.0 448.0 450.0 446.0 442.0 441.0 441.0 440.0 439.0 437.0 436.0 435.0 436.0 438.0 445.0 455.0 466.0 464.0 461.0 460.0 470.0 490.0 492.0 493.0 512.0 523.0 536.0 546.0 524.0 512.0 504.0 511.0 529.0 530.0 510.0 472.0 470.0 480.0 505.0 506.0 496.0 494.0 493.0 477.0 473.0 466.0 463.0 469.0 465.0
533.0 533.0 534.0 545.0 548.0 546.0 544.0 545.0 547.0 551.0 546.0 546.0 545.0 545.0 542.0 540.0 541.0 535.0 531.0 530.0 529.0 529.0 530.0 532.0 534.0 536.0 535.0 529.0 534.0 534.0 539.0 554.0 557.0 554.0 551.0 553.0 562.0 542.0 551.0 551.0 552.0 552.0 557.0 566.0 574.0 586.0 586.0 580.0 533.0 514.0 503.0 497.0 505.0 513.0 511.0 479.0 461.0 450.0 442.0 442.0 441.0 442.0 436.0 436.0 434.0 433.0 437.0 439.0 446.0 453.0 455.0 457.0 464.0 473.0 479.0 491.0 520.0 539.0 553.0 561.0 530.0 505.0 487.0 509.0 532.0 539.0 529.0 483.0 464.0 466.0 476.0 479.0 475.0 468.0 468.0 462.0 439.0 431.0 430.0 433.0 431.0
524.0 523.0 524.0 524.0 532.0 535.0 536.0 532.0 533.0 538.0 535.0 534.0 533.0 530.0 531.0 527.0 525.0 526.0 525.0 525.0 526.0 525.0 522.0 522.0 520.0 520.0 519.0 515.0 514.0 515.0 519.0 525.0 527.0 525.0 509.0 518.0 529.0 526.0 521.0 520.0 519.0 519.0 522.0 530.0 540.0 553.0 552.0 548.0 542.0 519.0 513.0 514.0 536.0 550.0 550.0 538.0 500.0 478.0 464.0 465.0 476.0 475.0 459.0 452.0 438.0 432.0 435.0 446.0 463.0 468.0 474.0 478.0 481.0 478.0 478.0 480.0 501.0 494.0 503.0 512.0 506.0 494.0 484.0 485.0 501.0 508.0 505.0 483.0 466.0 457.0 458.0 463.0 460.0 455.0 450.0 449.0 428.0 425.0 426.0 428.0 430.0
517.0 516.0 516.0 515.0 523.0 525.0 525.0 523.0 523.0 527.0 528.0 523.0 522.0 520.0 520.0 518.0 518.0 520.0 521.0 521.0 519.0 521.0 518.0 517.0 513.0 510.0 509.0 510.0 503.0 501.0 495.0 496.0 497.0 498.0 500.0 508.0 512.0 510.0 503.0 499.0 499.0 498.0 500.0 503.0 511.0 523.0 521.0 515.0 510.0 500.0 499.0 502.0 516.0 524.0 527.0 525.0 520.0 509.0 496.0 499.0 488.0 470.0 461.0 456.0 445.0 432.0 450.0 488.0 519.0 525.0 523.0 517.0 513.0 526.0 523.0 518.0 505.0 500.0 499.0 501.0 501.0 495.0 490.0 473.0 474.0 475.0 475.0 472.0 468.0 461.0 448.0 447.0 451.0 447.0 439.0 441.0 424.0 423.0 426.0 429.0 431.0
509.0 508.0 509.0 508.0 514.0 517.0 516.0 514.0 513.0 516.0 518.0 516.0 515.0 513.0 511.0 512.0 512.0 514.0 518.0 517.0 516.0 516.0 514.0 513.0 511.0 506.0 504.0 497.0 492.0 492.0 490.0 489.0 490.0 492.0 493.0 493.0 494.0 494.0 492.0 489.0 488.0 485.0 485.0 488.0 493.0 497.0 495.0 491.0 486.0 481.0 483.0 484.0 490.0 491.0 492.0 491.0 490.0 490.0 490.0 484.0 465.0 443.0 440.0 438.0 434.0 439.0 497.0 536.0 556.0 557.0 543.0 539.0 538.0 531.0 530.0 531.0 520.0 511.0 506.0 503.0 508.0 504.0 497.0 482.0 478.0 471.0 465.0 462.0 462.0 458.0 450.0 445.0 439.0 437.0 430.0 432.0 423.0 424.0 426.0 429.0 434.0
502.0 502.0 502.0 501.0 506.0 508.0 507.0 506.0 506.0 508.0 510.0 508.0 505.0 506.0 506.0 506.0 510.0 512.0 514.0 514.0 513.0 512.0 513.0 511.0 504.0 501.0 498.0 495.0 488.0 488.0 485.0 485.0 486.0 486.0 487.0 485.0 482.0 484.0 484.0 482.0 478.0 478.0 478.0 477.0 478.0 478.0 477.0 475.0 474.0 470.0 473.0 472.0 471.0 473.0 470.0 468.0 464.0 465.0 461.0 446.0 437.0 430.0 431.0 437.0 450.0 472.0 492.0 500.0 505.0 510.0 516.0 517.0 518.0 521.0 522.0 523.0 523.0 506.0 501.0 501.0 509.0 504.0 493.0 488.0 484.0 478.0 471.0 456.0 452.0 451.0 445.0 441.0 437.0 435.0 431.0 428.0 424.0 420.0 421.0 425.0 432.0
495.0 496.0 497.0 496.0 497.0 497.0 500.0 500.0 502.0 501.0 502.0 501.0 500.0 500.0 503.0 503.0 507.0 510.0 511.0 508.0 504.0 504.0 505.0 504.0 501.0 496.0 494.0 491.0 485.0 484.0 481.0 481.0 481.0 481.0 482.0 479.0 477.0 477.0 477.0 476.0 472.0 471.0 470.0 468.0 468.0 468.0 467.0 465.0 465.0 462.0 465.0 464.0 461.0 460.0 457.0 452.0 448.0 447.0 444.0 429.0 427.0 427.0 431.0 444.0 454.0 459.0 470.0 476.0 480.0 486.0 490.0 490.0 494.0 497.0 501.0 505.0 506.0 495.0 487.0 488.0 490.0 487.0 482.0 477.0 478.0 475.0 469.0 459.0 456.0 453.0 448.0 442.0 441.0 439.0 434.0 430.0 425.0 419.0 420.0 421.0 428.0
489.0 489.0 490.0 491.0 490.0 491.0 493.0 493.0 495.0 495.0 499.0 496.0 495.0 495.0 503.0 505.0 508.0 510.0 502.0 501.0 502.0 502.0 505.0 505.0 501.0 493.0 491.0 490.0 484.0 481.0 480.0 477.0 479.0 478.0 476.0 474.0 472.0 473.0 472.0 471.0 469.0 468.0 466.0 464.0 462.0 459.0 460.0 458.0 457.0 460.0 462.0 465.0 463.0 454.0 452.0 445.0 440.0 435.0 432.0 426.0 427.0 427.0 429.0 442.0 452.0 457.0 460.0 460.0 465.0 470.0 470.0 471.0 474.0 475.0 477.0 481.0 487.0 483.0 477.0 474.0 472.0 473.0 471.0 466.0 463.0 462.0 460.0 457.0 457.0 454.0 450.0 444.0 442.0 441.0 434.0 432.0 426.0 420.0 418.0 419.0 428.0
485.0 484.0 485.0 485.0 486.0 487.0 487.0 487.0 490.0 489.0 491.0 492.0 491.0 492.0 503.0 512.0 513.0 506.0 497.0 497.0 499.0 502.0 504.0 505.0 501.0 492.0 488.0 487.0 482.0 479.0 478.0 476.0 475.0 476.0 474.0 471.0 469.0 469.0 467.0 468.0 467.0 465.0 463.0 460.0 458.0 456.0 454.0 453.0 452.0 455.0 457.0 462.0 461.0 452.0 448.0 448.0 442.0 437.0 426.0 424.0 426.0 426.0 426.0 438.0 445.0 451.0 454.0 452.0 456.0 459.0 458.0 459.0 460.0 463.0 466.0 470.0 477.0 471.0 467.0 465.0 459.0 463.0 465.0 463.0 456.0 455.0 451.0 452.0 452.0 451.0 449.0 441.0 440.0 437.0 432.0 429.0 426.0 421.0 418.0 416.0 418.0
479.0 481.0 483.0 480.0 480.0 482.0 484.0 484.0 485.0 484.0 482.0 483.0 486.0 487.0 489.0 501.0 501.0 497.0 493.0 494.0 495.0 497.0 501.0 500.0 497.0 489.0 485.0 482.0 478.0 477.0 475.0 473.0 472.0 473.0 473.0 470.0 467.0 467.0 465.0 465.0 463.0 465.0 461.0 460.0 457.0 457.0 451.0 451.0 449.0 452.0 455.0 455.0 448.0 445.0 442.0 440.0 432.0 427.0 424.0 425.0 424.0 424.0 426.0 432.0 437.0 442.0 448.0 445.0 445.0 449.0 450.0 451.0 451.0 459.0 463.0 469.0 472.0 462.0 458.0 458.0 454.0 456.0 459.0 460.0 453.0 451.0 449.0 448.0 448.0 448.0 447.0 441.0 438.0 436.0 432.0 425.0 421.0 418.0 417.0 416.0 417.0
475.0 478.0 478.0 478.0 479.0 479.0 477.0 479.0 479.0 479.0 480.0 479.0 483.0 483.0 485.0 487.0 486.0 489.0 490.0 491.0 491.0 491.0 495.0 496.0 495.0 487.0 482.0 479.0 476.0 475.0 473.0 471.0 469.0 467.0 470.0 467.0 466.0 464.0 463.0 461.0 461.0 463.0 462.0 459.0 458.0 456.0 450.0 447.0 446.0 445.0 446.0 446.0 443.0 440.0 440.0 438.0 426.0 422.0 423.0 424.0 424.0 422.0 424.0 428.0 432.0 434.0 437.0 438.0 439.0 443.0 446.0 446.0 451.0 455.0 465.0 466.0 458.0 454.0 451.0 450.0 450.0 455.0 457.0 458.0 454.0 451.0 449.0 446.0 443.0 442.0 442.0 440.0 430.0 431.0 426.0 423.0 419.0 418.0 418.0 416.0 417.0
474.0 474.0 474.0 472.0 475.0 475.0 477.0 476.0 474.0 476.0 477.0 477.0 479.0 482.0 479.0 482.0 482.0 484.0 487.0 486.0 488.0 488.0 488.0 492.0 492.0 485.0 478.0 475.0 474.0 471.0 468.0 468.0 465.0 464.0 467.0 468.0 465.0 463.0 461.0 460.0 459.0 458.0 459.0 458.0 456.0 451.0 450.0 447.0 445.0 441.0 442.0 441.0 440.0 438.0 439.0 435.0 425.0 421.0 424.0 423.0 425.0 423.0 422.0 425.0 427.0 429.0 431.0 435.0 435.0 438.0 442.0 448.0 453.0 456.0 457.0 451.0 449.0 445.0 446.0 444.0 447.0 453.0 454.0 457.0 452.0 450.0 450.0 446.0 441.0 437.0 434.0 433.0 429.0 428.0 424.0 420.0 416.0 417.0 416.0 415.0 415.0
470.0 471.0 470.0 472.0 474.0 474.0 474.0 474.0 472.0 474.0 475.0 475.0 475.0 477.0 476.0 479.0 479.0 480.0 484.0 482.0 489.0 488.0 484.0 489.0 490.0 482.0 477.0 473.0 472.0 468.0 466.0 465.0 464.0 464.0 464.0 466.0 465.0 464.0 460.0 457.0 456.0 454.0 451.0 452.0 452.0 448.0 445.0 445.0 443.0 442.0 436.0 435.0 436.0 436.0 433.0 431.0 423.0 420.0 422.0 421.0 423.0 423.0 422.0 424.0 425.0 426.0 427.0 431.0 433.0 435.0 443.0 452.0 457.0 453.0 444.0 441.0 440.0 440.0 439.0 440.0 443.0 448.0 449.0 452.0 448.0 441.0 439.0 439.0 434.0 434.0 432.0 429.0 426.0 424.0 424.0 418.0 415.0 413.0 415.0 415.0 414.0
